# .PCD v0.7 - Point Cloud Data file format
VERSION 0.7
FIELDS x y z rgb
SIZE 4 4 4 4
TYPE F F F U
COUNT 1 1 1 1
WIDTH 379
HEIGHT 1
VIEWPOINT 0 0 0 1 0 0 0
POINTS 379
DATA ascii
-0.033508480988161324 -0.018366694813073535 0.5772181933190474 9408166
-0.03238851501502133 0.012820502862194723 0.5586961312319375 9553379
-0.03288478429807794 -0.014711233326202574 0.5776486175872488 1709135
-0.03288478429807794 -0.014711233326202574 0.5776486175872488 1709135
-0.03271307273280412 -0.00996029606447111 0.5780960606725547 2178450
-0.03272582951787106 -0.01414923350149545 0.577700379619174 2432065
-0.03227283642686597 -0.013308956141581943 0.5778577821879247 14144484
-0.03215523913467907 -0.009933840418220484 0.5780030465880814 2112916
-0.03215523913467907 -0.009933840418220484 0.5780030465880814 2112916
-0.03214672787417217 -0.010810242865116282 0.5779444984978979 9152469
-0.03212589533905894 -0.010835893296053672 0.5779769213580909 10205413
-0.03214535078940757 -0.018559558471609127 0.5771886968215718 2299187
-0.031068104410087557 0.012055238134298173 0.5774775904172181 9614274
-0.030680798748588707 -0.010308212574203772 0.577901228961292 8560849
-0.03065741916406305 -0.0047224676721125 0.5781706683386726 10339552
-0.029883374489902612 -0.004796329126797981 0.5781599873232781 1845607
-0.02985455852780304 -0.014243021095094047 0.5776606532842516 14934001
-0.029581841425434727 -0.004241078107186359 0.5780948586764666 10669030
-0.029398488172379656 -0.01791487174791309 0.5771281100381417 12568025
-0.029368909175797427 -0.01721799630299954 0.5771959963409886 10266810
-0.02896320471278076 -0.01793374230396964 0.5772034647711055 3221057
-0.028941359463145837 0.011780743767062963 0.5774413411462211 7051182
-0.028559982541580566 -0.013542439734067354 0.5775904738730421 2301243
-0.028557461291080607 -0.013522020397690291 0.5775987287570772 2433342
-0.0285556383432151 -0.013503838300586548 0.5776053318532471 2433342
-0.028038352972913544 -0.023460034670705704 0.5670641387013156 11714510
-0.027868003237101993 -0.012982016985968682 0.5776003877420378 3026500
-0.027595458239714897 -0.01344041794736145 0.5773922314770574 13026511
-0.027595458239714897 -0.01344041794736145 0.5773922314770574 13026511
-0.02750266816216688 -0.008851954308041915 0.577561462905749 6664153
-0.0275500370784525 -0.0009115565175315008 0.5779884379502216 8762315
-0.027512030059716856 -0.013469592948091729 0.5775696435409261 14474213
-0.027110504687572545 -0.006267166232993969 0.5779089522110739 1449035
-0.02713257089386262 -0.013120148586182236 0.577588841863778 2432829
-0.025692957650222396 -0.011008798865932838 0.577076996482476 1906006
-0.02276597382280687 0.01030851566323525 0.5779471069082405 5079194
-0.02276597382280687 0.01030851566323525 0.5779471069082405 5079194
-0.0222583754458063 -0.000988065968753897 0.5784663622552504 14344158
-0.02212123051224616 -0.0020090599815507956 0.5785899524780659 13620435
-0.02212123051224616 -0.0020090599815507956 0.5785899524780659 13620435
-0.021873302235590125 0.012050495352779014 0.57790794116456 7123163
-0.021234263200306577 0.012323498665338753 0.5777533014376618 4618396
-0.02102735920496792 0.01041958750815245 0.5781331109969053 2774673
-0.020528232383021712 -0.0002534233956657782 0.5786822388142656 15529204
-0.020581209560058062 0.00389051205323759 0.5785108371463396 3383761
-0.02018212728316988 0.011483665740083974 0.5780768104836891 8895192
-0.01982970071918464 -0.003982075003529676 0.5786877292734233 14938097
-0.019854453509972135 0.0038616800251718006 0.5785970919942935 10413054
-0.019470688036403304 -0.00046642527680086675 0.5788245007423078 15068660
-0.019470688036403304 -0.00046642527680086675 0.5788245007423078 15068660
-0.019180714752425904 -0.006410613296261386 0.5786959617164192 2695579
-0.01896166344469511 -0.0026550087530585772 0.5787229077787851 15593970
-0.01906572366688672 0.00927544197965937 0.5781220941583605 11588830
-0.0186750195940198 -0.006851401691630932 0.5785821558420495 12172507
-0.018655414716984526 -0.00689092797228915 0.5786141515428472 11514573
-0.018768750788182065 0.0062984280848367635 0.5784672872671655 3381452
-0.018450393225845275 -0.0014476390623607905 0.5786235192243675 14937074
-0.018436258161878608 -0.0009157452548612011 0.5787174693943576 9085884
-0.01811958009317458 -0.005233445032515927 0.5787131102218291 15331824
-0.01818974441426776 0.00586978449489566 0.5785295569902614 6280178
-0.018276936348181 0.010884590532282662 0.5780044894564845 4295349
-0.01776501107381897 0.0010252608818903891 0.5787264578954069 6865362
-0.017647638328989898 -0.005722464023535553 0.5787493234634752 15396085
-0.0175348497512004 0.008758604674784563 0.5782225662699378 5412798
-0.01684834250730399 0.006540735550320151 0.5783805490226088 2718896
-0.016341697740872733 -0.008599278553459738 0.5785617140400695 15331053
-0.01605805156637045 -0.018445485360789774 0.5776305595392621 1508746
-0.01576555382035019 0.00406663618505795 0.5784152031458764 3904968
-0.015428137899138076 0.003065707413915111 0.5785974255624894 11721960
-0.0152096686514694 -0.007971334986183942 0.5785499340191465 15002611
-0.015083614090059535 0.0025425833643019126 0.5786250703232918 6988999
-0.01505340152489926 0.006158305488597904 0.5788803990193353 2825152
-0.014869066187888948 -0.0036104855115146927 0.5788341224839898 3811990
-0.014835273641273964 -0.01740993120808272 0.5775445177610777 15330541
-0.014835273641273964 -0.01740993120808272 0.5775445177610777 15330541
-0.01465901161412388 -0.0022278210616879326 0.5788072967008802 15396337
-0.014734240106154203 0.004547937557126597 0.5785591836224211 9751513
-0.014628723768480983 -0.016703488879778197 0.5775763003963618 15265258
-0.014594535931567563 0.0034772367659158367 0.5784840945793944 4220063
-0.014462523305343202 -0.010219361615320067 0.5785169923892775 7304086
-0.014339131001716942 -0.013611444103622231 0.5781537477909723 14674923
-0.014320911661206968 0.011251196001133985 0.577716847386201 4287388
-0.01393002548029485 -0.006320358828717242 0.5786689006112792 15133678
-0.01393002548029485 -0.006320358828717242 0.5786689006112792 15133678
-0.01393913095753697 -0.01326340184206217 0.5780994175047737 4205985
-0.01393913095753697 -0.01326340184206217 0.5780994175047737 4205985
-0.013886168152562346 -0.0005698308274448351 0.5786167430061022 8891090
-0.013882488165252716 -0.01516184350745887 0.5778625758990374 6123339
-0.01374432024146005 -0.012347567419662099 0.5782461727792355 5859401
-0.01374432024146005 -0.012347567419662099 0.5782461727792355 5859401
-0.013665657272815854 -0.00808133412644936 0.5789137189800553 15002092
-0.01341144811207782 -0.015413990092408883 0.5778486529834255 14937066
-0.013392969388237044 0.003662067579870607 0.5784404550338595 11982307
-0.013407369043134993 0.005092780474870079 0.5783592066957556 7977689
-0.013165488879687425 -0.015021753618608446 0.5777163263140516 5795408
-0.012941946676063323 -0.010250162020174002 0.5782793282589378 14278136
-0.012891309638418683 -0.006215038123131 0.5784768364007784 3351958
-0.012948043180238423 0.006128562255191867 0.578250089254986 10660308
-0.012948043180238423 0.006128562255191867 0.578250089254986 10660308
-0.01291376843590846 0.009146024662291637 0.5778871922238177 4290207
-0.012783374880795709 0.005081466326000696 0.5782275687368148 6464198
-0.012855634855293153 0.008235631483966286 0.5780935828882144 8435409
-0.012660349298271284 -0.014272878041718588 0.5780837935637533 14804973
-0.012577807759294872 0.0004472169508080119 0.577947957964037 13031900
-0.012446830465684561 -0.01269070745765961 0.5780122677527321 14672885
-0.012345654294606101 -0.0017032917363156614 0.5783711375301408 10664664
-0.012359507252700044 -0.01418894267237135 0.5778458676218022 14673133
-0.012273628643236516 -0.006913016236602466 0.5784138961193495 14739186
-0.012329408945760014 0.0054631315912787946 0.5781580250002915 2500782
-0.012153626361502442 -0.017190645351086366 0.5774079578310761 14804712
-0.011772121588412206 -0.01146396005338628 0.578321070581624 14871021
-0.011734228945808655 -0.007391043967263956 0.5783549877361592 3876759
-0.011734228945808655 -0.007391043967263956 0.5783549877361592 3876759
-0.011702893531095515 -0.003531878351752454 0.5786205933235758 4009871
-0.011940278886541858 0.010134997430720013 0.5776468821678957 11124170
-0.011940278886541858 0.010134997430720013 0.5776468821678957 11124170
-0.0117720912843113 0.005491717999523098 0.5780922756193687 3547835
-0.011676952860977065 -0.016373565739397057 0.5775708798616228 4345666
-0.011469158604870446 -0.014516371341468381 0.5778312686215756 14016998
-0.011268021453325549 -0.012055464426970976 0.5779328515280637 4810292
-0.011268021453325549 -0.012055464426970976 0.5779328515280637 4810292
-0.011308307968895273 0.007590645022485551 0.578223999644579 9814739
-0.010752129311003956 -0.011394113668163489 0.5778114280143489 14936044
-0.010739672182369342 -0.003068014649704459 0.578386303318961 14476529
-0.010831126717264725 0.005450598175466429 0.5780130906488242 3219130
-0.010691454737389151 -0.014742016929973331 0.5776184017180056 6057546
-0.01059149596165069 -0.01250035237211384 0.5776644328819939 14607855
-0.010697809390130424 0.006039033067320122 0.5779337096115617 9871327
-0.010571717506291444 -0.014114259249041035 0.5774987166921038 14870768
-0.010102334941315447 -0.016139935176625632 0.5774203432802335 15002090
-0.010005097655555375 -0.0003403653017079585 0.578249855345658 7054013
-0.010005097655555375 -0.0003403653017079585 0.578249855345658 7054013
-0.0099265510239355 -0.012893447560369616 0.5777912120195632 8819081
-0.0099265510239355 -0.012893447560369616 0.5777912120195632 8819081
-0.009900028707698478 0.0038399520149103444 0.5781167893189982 8305876
-0.009350885722373952 0.0077023264450921175 0.5776487092830866 2252689
-0.008883645184706482 -0.005519202539405716 0.5781325595254686 3879819
-0.008975474674958253 0.004113872387318034 0.5778235075324147 3629950
-0.008936783728075734 0.008462814450771648 0.5775087362680076 2710159
-0.008123940271551227 -0.005595491279862848 0.5778871964121826 4077186
-0.00824519568053553 0.0074727377893969785 0.5775202733220485 9946074
-0.007953950091565574 -0.006175408372222535 0.5770946523110061 5261976
-0.0079663216799736 -0.004453375818105754 0.5780303462710414 14476262
-0.008005248694013126 0.004884321758288139 0.5776360721000504 8042705
-0.007610947235794858 -0.0026897884762843364 0.5778896319133905 14542570
-0.007419937406605354 -0.004923286757891239 0.577825787622383 14213610
-0.007381978542474884 0.0005395061258090604 0.5777956787286439 4755885
-0.006943032712620514 -0.003484875888674772 0.5775382053976779 3617663
-0.006904236919012168 0.0027166207506700104 0.5776799192819646 1385059
-0.006904236919012168 0.0027166207506700104 0.5776799192819646 1385059
-0.006404288091031704 -0.012278385219022187 0.5774870919239417 14542309
-0.005982969564746892 0.004899497782523278 0.5770866324739187 1184166
-0.006035158294228167 0.009915032828507801 0.5760642477005106 4557233
-0.005510815523999861 0.0006171757699144655 0.5775340244342038 2964620
-0.005363893432701274 -0.01617836368641077 0.5765836262108505 14081510
-0.004469219499754717 -0.004143936515923945 0.5775472289999355 6996431
-0.004112654848622755 0.005225171930513732 0.5767288964816716 5430513
-0.0040438275467505995 0.010114261295132819 0.5766978406976293 1340051
-0.0038148396453515825 0.008393723415930046 0.5765207134064178 2019306
-0.0032108919716629255 0.005654031355547081 0.5771095905889093 8771047
-0.0033338690476515955 0.010486620985616906 0.5767742411949109 2469844
-0.003253618259532873 0.010076593777413078 0.5766753953528797 5275550
-0.0030442314946872457 -0.01783488717371527 0.5764769998511835 3113294
-0.0028729861180654425 -0.01951113764315805 0.5763392820245232 2915914
-0.0027294190326977866 0.0051885622760544465 0.5771177491059395 3231392
-0.0027001683460510595 0.007694795581675337 0.576792841649219 2802666
-0.0027001683460510595 0.007694795581675337 0.576792841649219 2802666
-0.002189446265164493 -0.008146882205894044 0.5767987100729669 10740464
-0.002109113067685941 -0.005419815047218927 0.577394598912906 11593200
-0.002369669062586938 0.009379534911498651 0.5766533307157079 10013669
-0.0015599765854860514 -0.01004242528175705 0.573154056711943 5423853
-0.002003156589792102 0.006514502468118042 0.5770269695138971 12442868
-0.002003156589792102 0.006514502468118042 0.5770269695138971 12442868
-0.0019269234295363304 -0.006907181603027208 0.5767513511270275 7393257
-0.0018836114406996494 0.0035679513731213877 0.5772739382827689 3950266
-0.001821968693111043 -0.018230312168758967 0.5764285697238852 1911469
-0.0018022472108298229 0.009957436695117575 0.5763169340487309 1478326
-0.0016600537353459862 0.007298380418802501 0.5769224049919836 5403272
-0.0014936234664787405 0.004304089037069507 0.5771401303455334 12243684
-0.001287838600608065 -0.012076564692195932 0.5768935790778654 8375521
-0.0013128737753573961 -0.018174051144174273 0.5764041896576931 13158390
-0.0013354784992980256 -0.01905927055733039 0.5760830358615348 11449832
-0.0012443485397827395 0.005096032685939149 0.5770133881973536 3888273
-0.0012889751457538792 0.007936489998585216 0.5768021116342364 5358043
-0.0010194420274270435 0.0031994526346484273 0.5771709473779711 13294052
-0.0010854564674507542 0.006678112816671917 0.5769457154040046 6339542
-0.0005599233329544585 0.0026292076774721536 0.5771472141225839 3951541
-0.0006730128695156423 0.007148208900435962 0.5767970229264895 6061974
-0.0006730128695156423 0.007148208900435962 0.5767970229264895 6061974
-0.0006297103050859849 0.006572379112624154 0.5767849649499599 6077401
-0.00035958910403545506 -0.003038114557679095 0.580260845046565 6802675
-0.0003244358536136594 0.007136006332073784 0.5770350093816616 5799308
0.00013082977589662812 -0.01029375866862263 0.5772020022087875 4825053
0.0001876033854821151 -0.012542288804363078 0.5769644121621752 1788350
7.809307401187519e-05 0.005877461182306726 0.5767121396457511 6653081
0.00016850790217119791 0.007487508831643802 0.5766503222375826 8300995
0.00019990759119822997 -0.019046224364149596 0.5761358662012158 2496187
0.00039247364982644456 -0.00685499886216968 0.577255780816348 3556442
0.00040525431253774603 -0.005596259760458652 0.5772298886932017 2469345
0.0004916272665767563 -0.01507173430208833 0.5758546704339685 8965095
0.0006982557834897343 -0.008798756337520213 0.5769423387480249 5350345
0.0007546790555459081 0.001753190846076692 0.5768434508183251 13624296
0.0011563379025841289 0.00903394065247364 0.5760557780002146 1719143
0.0014083660484325146 0.007208078717295894 0.5764631416019794 12243937
0.0017377275130140161 0.004610841006424422 0.576688889022394 3424155
0.001678987001601035 0.008352820226469049 0.5760046736450719 12113380
0.001835477949406098 -0.015270381439696003 0.5763349533541967 6529468
0.001835477949406098 -0.015270381439696003 0.5763349533541967 6529468
0.001780257930370515 0.005534110203799729 0.5761689207421332 13426408
0.0017713586425321436 0.006286095191024049 0.5765192842078815 6452609
0.0017713586425321436 0.006286095191024049 0.5765192842078815 6452609
0.001919167295913641 -0.013007004322854468 0.5765300939802278 2174790
0.001984132030411913 -0.010625564897818438 0.5767091874048964 1911103
0.0019857170009943523 0.002630633862947601 0.57669087577485 14737902
0.0020254942047803564 0.006994003171200237 0.5762535745042302 13030626
0.0020954772373117676 -0.02247699874119095 0.5671969244470936 2901075
0.002409462696700997 -0.012756613410419235 0.5765431069118554 9287377
0.0024911002062061394 0.004436623244731455 0.5765284801221574 3819393
0.0026300942495714615 -0.011837864930575698 0.5765638466788198 8756911
0.002614862547809717 0.0018642947378603183 0.5767120044972015 12509166
0.0024125333404942527 0.009475765245079796 0.5754691101651014 8170171
0.002622505301945906 0.0023579098141038052 0.5766935088410998 5002909
0.0026098920927036273 0.008225311385414756 0.5760011754408261 3902908
0.0026098920927036273 0.008225311385414756 0.5760011754408261 3902908
0.0028491647644549494 -0.012009404720207466 0.5764856102903835 9222866
0.0028322394816135735 0.005961168047123765 0.5763963083941447 4952759
0.003012457438952705 0.002946651800444558 0.5765144088983714 5002927
0.0029808486734371055 0.005364285883656664 0.5763381498275525 6855607
0.003102450370206887 -0.012890444528439514 0.5762737653974348 2831946
0.0032404775161103305 0.0027015190480608867 0.5766148823985584 4081837
0.003508812036800296 -0.011898269427226053 0.5764280620657902 1846596
0.003508812036800296 -0.011898269427226053 0.5764280620657902 1846596
0.0035817184991035716 -0.01004582147176607 0.5764934324085221 5088203
0.0039542272930627185 0.002510622384089997 0.5763377652289259 13884646
0.00393990129062258 0.004073792438693573 0.5762700633152191 4146055
0.004121915232274002 -0.004792682599516894 0.5765915393234948 11327978
0.004332974381569095 -0.002537104825080041 0.5769406376355553 5620958
0.0043736149756075995 -0.009180576079670155 0.5764164487309095 12443363
0.004506147283095074 -0.01014804211193105 0.5766104614420839 7130333
0.004529566849712375 -0.0017187619494317616 0.5764967448263154 1252152
0.004531111735307746 0.00710641557881979 0.5753211766615559 3034778
0.004584363297153711 0.008153004955907612 0.5753701381306316 1320798
0.005205283788012819 -0.006610490533896425 0.5761998880300596 3102896
0.005032764077947026 0.006289780270185452 0.5757006931072947 531547
0.005182763540072528 0.0024954033847759418 0.5760978403027998 3555760
0.00529481280546144 -0.016366719444777498 0.5753411863114736 6533073
0.005611534268532032 -0.0017136383631026774 0.5761264190439765 1449779
0.005699007465033601 -0.011324068475857528 0.5760264467602466 6340832
0.005753641277420332 -0.005196434552239943 0.5762494159162804 9621233
0.006020932699121091 -0.017813052388064143 0.574410307648963 3314536
0.006174644153725932 0.009142545128883127 0.5745814337228112 4811937
0.0067881792996350564 -0.014847577577624008 0.5750178985096849 2582206
0.0067881792996350564 -0.014847577577624008 0.5750178985096849 2582206
0.0070444219668052595 -0.008463654798707592 0.5757928910785709 4372453
0.0069695084368846675 -0.015430905819110063 0.5750046659011467 6590646
0.0072726114411241745 -0.007260255201324878 0.5756450973201144 9224951
0.0071694109046242455 0.0039707995592656465 0.5749994722968629 12960973
0.007344966767957865 -0.015279437976872647 0.5749773216657089 11387354
0.0076798100115958974 -0.006470371337980499 0.5755071926565147 2526155
0.007635228912756434 0.0003489794567376802 0.575214790299854 1861581
0.0077533393009075885 -0.0070294689871422626 0.5754256240610444 3317191
0.008018446232042595 -0.01577196655283346 0.5745563410470995 12366264
0.008105660486558395 0.0022317780303159596 0.5744437402067593 9938407
0.008248772006864816 0.00043468106009809276 0.5751868522969231 10211314
0.008724425529920296 -0.00872037627364955 0.5751348065302878 2174783
0.009163459366664886 0.00035019921811488714 0.5746139342282254 12634843
0.00915786488416117 0.006854431549520659 0.574123868168832 12095901
0.009687476140003598 0.008609022896634792 0.5735614648143282 6757168
0.01011264401233136 -0.01205442051618352 0.5742311161106735 8371670
0.010338298199055254 0.005272028678594163 0.5737281086437798 13542582
0.010553581520966207 -0.008054921011568758 0.5743030354128074 3630017
0.010890656849686499 -0.01011136264836984 0.5740985040031223 7648468
0.010916782821814753 0.007085465252837764 0.5732779896635808 7541537
0.011183609235023343 0.004791411257881339 0.5736797272888486 6031640
0.011161041524871757 -0.018433102033150975 0.5731963272022937 2322767
0.011333555815741124 0.0027703572740126656 0.5738988819865559 5708063
0.011730920445426335 -0.005912762082945452 0.5737370966768419 6164253
0.011756200154301219 0.010118652731556729 0.5734083604236133 11452616
0.011756200154301219 0.010118652731556729 0.5734083604236133 11452616
0.012654736880243126 -0.018693415771430456 0.5729922204895539 4877987
0.013173398038712942 -0.02004268751910093 0.5725383764355725 2966099
0.013248444124768792 -0.02002171929576447 0.5727085996188108 2573156
0.014229473563281974 0.007395463258232484 0.5762918152321216 12176105
0.015064773256341408 -0.00756510127508214 0.5769006644377137 1122106
0.015088669556639983 -0.017127025723752392 0.5754870195854046 5485257
0.015825843708454773 0.0007215497507503756 0.5780753780498582 9488866
0.015825843708454773 0.0007215497507503756 0.5780753780498582 9488866
0.016832474052906762 -0.010906616215649931 0.5783043662556069 1122110
0.01707795073951417 -0.009680395609252492 0.5787597961607789 1322577
0.01706564754085344 -0.010364529346688994 0.5786772310610439 9355482
0.01803203286262094 -0.005503613240636222 0.5800558551426712 3108292
0.018082409316783284 -0.00380785233478128 0.580308949333669 3438273
0.017986254429421065 -0.019996519002681217 0.5773657448720647 12569806
0.019060354489531937 -0.0063475323922772215 0.5811497054218636 8821162
0.019145570766245245 -0.010820292001481595 0.5806842080690875 1057346
0.01926172737093793 -0.003815365828655358 0.581467682269932 2323914
0.019372206297208427 -0.0010216474729773265 0.5816304231156235 2570897
0.01995525333161726 -0.009084038691365188 0.58171103970308 1125715
0.020129688274275734 -0.001186304367719 0.5823780598424266 5409237
0.020045090150340623 0.00493723473154231 0.5821921150606529 3977941
0.020183965305136047 0.001168780248349052 0.5823737958256406 11258338
0.020219522510192923 -0.017859249152729673 0.580394678898747 5871783
0.02133937899873005 0.008892431138467017 0.5829481194445427 2374011
0.02141706032294145 -0.017440123027598235 0.5816655868532467 3362424
0.02141706032294145 -0.017440123027598235 0.5816655868532467 3362424
0.0216549061848208 -0.014588473201669422 0.5822512253007662 13753307
0.0216549061848208 -0.014588473201669422 0.5822512253007662 13753307
0.0220036299219983 -0.007283869823637032 0.583891599315209 1124163
0.022050083347124702 -0.009749993131697618 0.5837004861314159 1061723
0.022266143196492127 -0.002603064913630164 0.5844371987249586 11917038
0.022351716460984567 0.003918132633808419 0.5846520355446001 3497896
0.02293654932955576 -0.0010863583710264686 0.5850775748970098 5548005
0.02322266792194713 -0.005819193550454212 0.5851050339670204 13425127
0.023386312693407418 -0.0028761306462935033 0.5854490333614218 5668015
0.02337826398685106 0.0019610403300581625 0.5855166008240718 12506082
0.023591051768242395 0.0002699935605251994 0.5858110286542275 2837642
0.023557406403523717 0.0034389972678828813 0.585592118360433 10539761
0.023687681449118217 -0.007277717436887849 0.5855195343018776 1977156
0.023687681449118217 -0.007277717436887849 0.5855195343018776 1977156
0.02366627244232963 -0.01087875672802664 0.5851432627028297 1321803
0.02388338439922241 0.0013327979136836191 0.5860592225633755 4684211
0.023975012836163965 -0.0023509919223264016 0.586044970750816 11197175
0.02441917478422067 0.0007311721728903848 0.5864895584802123 13427176
0.02452735459875773 -0.0006890124748472965 0.5866025066931931 6725598
0.02463942527554562 0.002254666036416177 0.5869483748470495 5220050
0.02498371705989515 -0.00607183118598872 0.586960699245581 8623011
0.025028846953668346 -0.010818713366346254 0.5864979287980265 1192528
0.025115129686502213 0.009450403310371376 0.586528137680682 3033739
0.02540326430190852 -0.009620758148699261 0.586978817533126 1652315
0.025373894099822707 -0.013179152645871798 0.5865397370222989 2177371
0.025373894099822707 -0.013179152645871798 0.5865397370222989 2177371
0.025515849429686516 0.00382522126773711 0.5876158676993852 8834536
0.025655918898613354 0.0038809675878337187 0.5879272072032444 9295341
0.025885798653661165 -3.2784330299248445e-05 0.5879773754804175 11061988
0.025894390789298907 0.005759087385686997 0.5877086119642704 3171748
0.02596598771898737 -0.01837732151451893 0.5859099070853492 8167140
0.02644283290079364 0.004994257955788516 0.5883519502035971 9422569
0.02668858544627753 -0.007014047611311069 0.5885242364505696 1781839
0.02668858544627753 -0.007014047611311069 0.5885242364505696 1781839
0.02665420345248992 -0.009884741411167661 0.5881939372847245 1525098
0.02707202649041721 0.006246952311493255 0.5889740460362043 13098212
0.027157727200531386 0.00728707741600872 0.5888390710428207 3699132
0.02737379041989678 -0.013437023975104562 0.5884313143210302 2704220
0.02737379041989678 -0.013437023975104562 0.5884313143210302 2704220
0.027468152235147366 0.004919770094632156 0.5891848132337365 4685242
0.0276180579603511 0.008665194496788462 0.589135349115571 2706813
0.02827688282555608 -0.010671468390098736 0.5894545108063686 13952742
0.028192260299080937 0.008162754750252292 0.5897487302136384 13688554
0.029149682300429445 -0.009809886222303556 0.5906630260463194 2376034
0.02977551105193742 0.004674452864138783 0.5915666537575895 6999265
0.029671186388864665 0.007884005018496528 0.591098134131676 7590396
0.030227537681986796 -0.016845905886654116 0.5905919841380456 3497656
0.030227537681986796 -0.016845905886654116 0.5905919841380456 3497656
0.031671387423327944 -0.017532916140477632 0.5919286043383069 10138330
0.03462953612892821 0.012616371174158321 0.5960680024923583 11385020
0.0343812346423613 -0.02463991641768776 0.5930166073444586 13219505
0.035398935963730144 0.004402082377481229 0.5980493230455822 14278895
0.0363561828267684 0.00826448642737145 0.5984567560456009 9522727
0.03588376971242588 -0.02239410933335098 0.5952183930214405 7499451
0.037111379932389124 -0.011741137290118988 0.5993372871440508 2299802
0.03815802785809596 0.00830985655892049 0.6009558945544944 10114095
0.038851143242906575 -0.023227959305170066 0.5980518512086496 13356771
0.038759684365611745 -0.027895402388464312 0.5963040489900114 8009789
0.04041584289004946 0.005355838817197911 0.6040335354875956 13884379
0.04056698357151408 0.006699247736236752 0.603937765481644 9852203
0.04110605399902025 0.007664051355556155 0.6043361200252112 9129774
0.04147116022216111 -0.01378478056739855 0.6038155069740353 14410212
0.04141477358256738 0.01028689768352562 0.6042918552736997 14476266
0.04089328734597913 -0.021755143256933233 0.6005108403431381 14606304
0.041471522710466634 -0.020020552797426507 0.6021845357256745 15457761
0.04327478181352969 0.009056536412762993 0.6068767708872057 9587494
0.04364446757414623 0.005983773168320183 0.6077620131684651 7689523
0.043746414884423594 0.007698654669971993 0.6077432286120364 9589294
0.040600545913968 -0.021211089969221244 0.5854580360538104 14930647
0.042337119356057475 -0.026965912725374835 0.5999467782373988 8533302
0.0450371279336801 0.010760229217072356 0.6085719268189722 14540776
0.043436228271658155 -0.030219829423303816 0.5995711966775646 8533810
0.044528898540137 -0.02185605895463946 0.6047906543668085 6836821
0.04566741612587076 0.011475393283663116 0.6091901866652505 12830434
