# .PCD v0.7 - Point Cloud Data file format
VERSION 0.7
FIELDS x y z rgb
SIZE 4 4 4 4
TYPE F F F U
COUNT 1 1 1 1
WIDTH 688
HEIGHT 1
VIEWPOINT 0 0 0 1 0 0 0
POINTS 688
DATA ascii
-0.08552425065419543 -0.023085562053522725 0.7458997995497235 12436168
-0.08534728048267219 -0.019795208047469592 0.7459277016583082 396581
-0.0855069330484294 -0.0309932001174941 0.7456484539866007 6844598
-0.08483373400237267 -0.04898553803884266 0.7430051357369459 2761249
-0.08529782153459398 -0.03526240260937331 0.745200677606976 2171169
-0.08154498936787058 0.01246552872853548 0.7415446735481369 12238531
-0.0848696554181781 -0.02014707199656465 0.7457107045795018 13424103
-0.08514356985777069 -0.030098461820450152 0.7454536315612292 12174289
-0.08487654243071197 -0.02724109634056026 0.7454479177222165 11911882
-0.08487654243071197 -0.02724109634056026 0.7454479177222165 11911882
-0.08464623331504018 -0.037328618047849246 0.7445777167891017 12370372
-0.08406548470029286 -0.043525842118937896 0.743629902018219 2435614
-0.08386285670109175 -0.019216459661802007 0.7452582023479062 7187413
-0.07958309692454035 0.018217227270298498 0.7397979865903349 12041144
-0.07958309692454035 0.018217227270298498 0.7397979865903349 12041144
-0.08016409346405289 0.013197477323543295 0.7408248152365103 11778239
-0.08311658707599039 -0.05086020788764682 0.7417320403856132 2370083
-0.08333298297457173 -0.04646330714906379 0.7426997798148526 6912198
-0.08333298297457173 -0.04646330714906379 0.7426997798148526 6912198
-0.08351297997721294 -0.04200968054345622 0.7435065312302847 4478356
-0.08335978037467373 -0.02111839312019981 0.745035991236843 12963029
-0.08336645471627481 -0.021903529997286557 0.7451193463290211 1646110
-0.08008126334605085 0.010449221662889642 0.7412068098631481 12500929
-0.08325624293277288 -0.026043419120249323 0.7448518101598426 2367259
-0.08432223189948586 -0.03863779398749761 0.7471420359659574 2170153
-0.08163051853492209 -0.0040213285651990865 0.7436427550451019 13030090
-0.08294507777891495 -0.04148057599646175 0.7433123777186916 10594497
-0.08039718529630276 0.0058816504196806015 0.7420865314567007 13223887
-0.08308255388802582 -0.03140664548650388 0.7444530543613173 6387384
-0.08221563751706405 -0.05341028494139909 0.7410073204678114 2369571
-0.08199699090986219 -0.009412557501930404 0.7441248229769997 1052688
-0.08292671090706266 -0.026984981478391044 0.7446804287630406 3226944
-0.08247822333411607 -0.044483663271845254 0.7426818742605653 7372191
-0.08219146216459734 -0.016220677792087114 0.744400461164514 1710610
-0.07769885384313363 0.02105105713720031 0.7384664607906359 2564897
-0.08120563737569686 -0.004299746832811263 0.7435409042435306 286342
-0.08231500181060565 -0.044980754710953426 0.7424020048352359 1844269
-0.08035344641021709 0.0019435543418983533 0.7425655288270085 1255222
-0.08215808236867646 -0.018846349272351116 0.7445812226338792 1384494
-0.07970200124453268 0.005921604035991077 0.7418280129327269 400938
-0.07905103992403369 0.010331440257080703 0.7409151436975673 6393254
-0.0785814352876744 -0.0016809932799790657 0.7320534258086548 6393254
-0.08176338570187631 -0.049537621285844415 0.7414472683962385 11251126
-0.07910413222119944 0.008827537877115888 0.7411934335648054 2381418
-0.08191205082626556 -0.043764461022911455 0.7425370517245365 4083086
-0.08204532990655164 -0.03261329240170018 0.7439388914518529 3091359
-0.08197959429757697 -0.026987826126082495 0.7443432140480046 8625845
-0.08197959429757697 -0.026987826126082495 0.7443432140480046 8625845
-0.0791484132412997 0.007348477610338729 0.7414067209800181 6390145
-0.0772084897151589 0.019202691117344094 0.7386724798420643 10464957
-0.08176238722210447 -0.035226521578437885 0.7435630769562522 13357804
-0.08129504453071239 -0.04809703974625013 0.7414676505197192 2762530
-0.08150767896836081 -0.044100955046160406 0.7422861185131561 8095418
-0.07984761027344191 -0.0006458727267336567 0.7426520115596383 663596
-0.0815788034558932 -0.03897620557359053 0.7430074126576628 2236447
-0.07810587788024173 0.012238095438573585 0.740254356092542 8689833
-0.08133727524873718 -0.01983997797349692 0.7441472412391213 1515535
-0.08122182190308765 -0.023555464918258086 0.7440490756284994 1908505
-0.07950281252127225 -0.0018550074583294253 0.7426317834065289 3783372
-0.08115299701658997 -0.03120728144723024 0.743604410169857 2368801
-0.08090863911959091 -0.04384664717430476 0.7421234051869493 1318443
-0.07982196783766085 -0.005869863980942793 0.7429909511768278 13552580
-0.08099644322479359 -0.02463479783428919 0.7439220367532565 11844023
-0.07954711920844472 -0.004222902529420584 0.7428163694266363 7980006
-0.07937345324962466 -0.0035153647063825215 0.7427027489974233 7390430
-0.07679115198316201 0.016151917918938278 0.7390984103242186 5010571
-0.08044448678767574 -0.04330887806409449 0.7419524228535183 13026753
-0.07668874509131342 0.014904454029287754 0.7392552153805434 6912909
-0.0796089038477974 -0.009687683568836595 0.7431818364392536 9936030
-0.07548940884718128 0.02210045982603836 0.7374646085712423 2039585
-0.07548940884718128 0.02210045982603836 0.7374646085712423 2039585
-0.07909329848173358 -0.004451496982278356 0.7427248876691004 2242681
-0.07734494328029706 0.009579517153447943 0.7403484039087443 6718101
-0.08046512592739045 -0.033612810181897275 0.7431399478992856 2238746
-0.08034443040202716 -0.03268399507616295 0.7431552276820216 12567493
-0.07891252887273635 -0.005103095456169299 0.7426366754609088 12960986
-0.07845359394782786 -0.0007742775403079477 0.7420866136941482 1588095
-0.07825223726833973 0.0009520059731535965 0.7418768035328962 3038817
-0.07825223726833973 0.0009520059731535965 0.7418768035328962 3038817
-0.07921979161036787 -0.008924363828271904 0.7429983838057855 10395803
-0.07954868589436567 -0.013984238983846787 0.7433084951510869 529952
-0.0763617916806 0.0144166260603294 0.7392021746579247 1512980
-0.0795720137306891 -0.049266001771001246 0.7406071312084993 11910597
-0.07962828686904433 -0.048292585035528385 0.7407880017915403 11120305
-0.0752199326728462 0.020835108112733404 0.7376726470211487 11383224
-0.07978893310917941 -0.04298816157638967 0.7417242676079808 924196
-0.07598119694498379 0.015257800167515441 0.7389495988167047 7902899
-0.07598119694498379 0.015257800167515441 0.7389495988167047 7902899
-0.07979510696161297 -0.03903861451405555 0.7422657828464689 12830662
-0.0790624839554486 -0.05187669019665288 0.7398170993835486 4343883
-0.07942717083241607 -0.04593815158093393 0.7410993097599093 13817306
-0.0790992982909977 -0.014411785240484034 0.7431851729208963 11517903
-0.07962510614618248 -0.03804737965621421 0.7423415265179135 11644850
-0.07834718497004281 -0.006085683751673047 0.7424776812757019 7310242
-0.07824697684483682 -0.005191655012370199 0.7424027388012201 5269880
-0.07905911000067578 -0.048696076655378256 0.7404739673265693 6516079
-0.07599146971308984 0.012616073283519741 0.7393755180861137 3028272
-0.07935422749337516 -0.023309633888186847 0.7432643426081939 11515845
-0.07939185663725729 -0.04021741275390691 0.7419528849129366 13424347
-0.07871664182793367 -0.012407877714216323 0.7430460789504887 11910084
-0.07833713173942314 -0.007791776286045874 0.742632522659509 7904193
-0.07866655005919257 -0.013833625196953234 0.7429610617109345 3630479
-0.07740126350372413 5.9770874268243926e-05 0.7416443375553234 8629948
-0.07867269152054897 -0.01478155150609745 0.742988243664808 6713481
-0.07885699635184464 -0.046862432282853916 0.7406900298846045 11581115
-0.07920935997472393 -0.033394876738510215 0.7426458722323772 14013654
-0.07741170268141233 -0.0008725705727183564 0.7416883567799858 8232891
-0.07910905240611629 -0.03946727357050427 0.7419387440070173 4410959
-0.07910905240611629 -0.03946727357050427 0.7419387440070173 4410959
-0.07910298707832852 -0.03862532146788932 0.7420179720537546 4015946
-0.07858268553281 -0.05005743783810468 0.7400135672309639 7174524
-0.0791015961700028 -0.029859964013055195 0.742839105910292 992302
-0.07805555806212258 -0.008914482225479175 0.7424902919163832 3622994
-0.07873003203848725 -0.04333325922258231 0.7412098258937003 12834795
-0.07378448443064983 0.022879642674105586 0.7367443340357809 2171166
-0.07811134948617428 -0.011648932321074976 0.7426671731389929 8091739
-0.07885151943438186 -0.03729382572326071 0.7420786789328727 2107684
-0.07413094575306124 0.020511562652604596 0.7373616500263984 1775641
-0.0787253402376962 -0.040629503678363516 0.7415712210815755 5662838
-0.07813438801728925 -0.05184033964591606 0.7393696624638288 5660511
-0.0756722146646441 0.010129438823597051 0.7397059325065058 2632508
-0.07782879015414429 -0.009936008520933733 0.7424764757793996 10137538
-0.07873672325804489 -0.032486251245647094 0.7425139962867243 12699078
-0.0783326411678662 -0.04569077426867466 0.7406807665542424 6319728
-0.07838941567478681 -0.022033622753073794 0.7429319798103169 922897
-0.07838593368356367 -0.023486588551949062 0.7428583007904743 5008513
-0.07836490048384734 -0.03963808400158591 0.7415846819719668 7702676
-0.0781453256664211 -0.020442476006133387 0.7428547336425714 5660259
-0.07810809157613667 -0.04441150602150282 0.740807465851132 1716800
-0.07799346187131018 -0.046324669934549194 0.7403889514103166 12765389
-0.07506209507750261 0.010145569835864942 0.7394773604749052 10393765
-0.07625936806089742 -0.0006316971354595683 0.7412437771147641 400947
-0.07770478285830339 -0.02387015231343562 0.7425093105694541 5205900
-0.07299453508387788 0.0213873046808719 0.7368046043176462 2104597
-0.07737393565269961 -0.017355876940385005 0.7424796679106855 6250624
-0.07737393565269961 -0.017355876940385005 0.7424796679106855 6250624
-0.07766404417893653 -0.04061355609930289 0.7411266690744638 12568040
-0.07709345146732194 -0.050918026346971096 0.7391552187540915 7435645
-0.07709345146732194 -0.050918026346971096 0.7391552187540915 7435645
-0.07681231225095722 -0.010151522191479634 0.7420818511265926 4149079
-0.07662965468953124 -0.008759295245481124 0.7418418244025203 4544618
-0.0768502121354296 -0.011631586294357633 0.7421403216612358 9538671
-0.07605501275114444 -0.0034628911823802264 0.7412511007348225 6255235
-0.07719242740852908 -0.044586779537604704 0.7403631961222465 8094085
-0.08633748664238122 -0.044422122001078305 0.8220218375616078 11581887
-0.07727703520231148 -0.03405033500863169 0.7417387645181374 2637127
-0.07713314895396312 -0.04032507246931226 0.7409365867002105 11451340
-0.07654716984546892 -0.05119000555956125 0.7388349782950747 12171451
-0.07405737162274025 0.010292269510582694 0.7390677630529925 11372607
-0.07652504195782577 -0.050462167654388164 0.7390594996423452 11843773
-0.07688622670604528 -0.022203070829756567 0.7422276193895038 2105888
-0.07367356506969826 0.01208348808493101 0.7387101676925621 14799029
-0.07630310151222361 -0.05171502040216113 0.7386101449671294 7896703
-0.07687942373196455 -0.037223255127464494 0.7411426231936519 1975842
-0.07639579497156085 -0.047708419446106355 0.7394314861885707 7698810
-0.06871237419471667 0.0327112761007023 0.7198333113705737 8817548
-0.07416538326520411 0.005601017447233907 0.7398090961852626 11319230
-0.07641838566157838 -0.04321412543741348 0.740198754606914 5530218
-0.07435264554154754 0.003817026691390178 0.7400500058683328 7963787
-0.07608322066874001 -0.01575199490480264 0.7417757079035334 10131023
-0.07651090211101456 -0.03919385673425617 0.7408040616131529 2830900
-0.07554533145448952 -0.008188254421016165 0.7414640183429158 12699596
-0.07580547511738794 -0.050611290416351956 0.7387387751073818 14802398
-0.0753995817452322 -0.00964422307687761 0.7413961536056771 4215385
-0.07627372037318896 -0.029752089715481708 0.7415909940146097 4613748
-0.07232898693741306 0.0162094237283369 0.7375040044317925 14533016
-0.07165502418364132 0.019667386960926642 0.7366871619464921 13478252
-0.07589698728907608 -0.023263421006286124 0.7417630518354342 4023414
-0.07564763973081402 -0.018254038143710755 0.7417458191887065 13946041
-0.0751831955451247 -0.011108966690818298 0.7414268667013334 13353119
-0.0756017588837048 -0.020998595989227375 0.7416755619193686 9275999
-0.07175382644549895 0.017089663587581218 0.7371650919562783 11507580
-0.07548251869170666 -0.019322943240527406 0.7416684988102902 9277270
-0.07478230239738078 -0.011551292376347977 0.7411915410473686 9538161
-0.07478230239738078 -0.011551292376347977 0.7411915410473686 9538161
-0.07464430784241237 -0.010168660755894919 0.7411633679668095 5921881
-0.07387980132407702 -0.001986225712799154 0.7403171349590593 7104874
-0.07489368905709796 -0.014807804946555456 0.7413969342877342 5463126
-0.07512054072470199 -0.02220080875295949 0.7415367735659232 13422028
-0.073844344431877 -0.00407636079845573 0.7404979460231773 3295574
-0.07308569676672999 0.002871770241893814 0.7395396816819522 4936014
-0.07096999907129226 0.018347357630794092 0.7366651644885591 13616565
-0.0707198435330332 0.01969947381922655 0.7363441297775049 14075815
-0.07283270592901078 0.004509284733156194 0.7393315085366516 6124665
-0.0736983522398551 -0.003451167807391751 0.740422999967046 6452090
-0.07338088433114441 -0.0006348652480784453 0.7399814256593885 1253424
-0.07338088433114441 -0.0006348652480784453 0.7399814256593885 1253424
-0.07193625736665442 0.010137215850424331 0.7383224355335192 10386502
-0.07023241270444255 0.020706347199536426 0.7359599433684868 11237921
-0.07119159638619406 0.013699518145003505 0.7374811699760718 10058819
-0.06970702956690454 0.022488388993446996 0.7354659917419509 10252571
-0.07056784320629936 0.015965936440484357 0.7369212807406994 8485210
-0.07273539249275324 -0.001206713089322984 0.7398717339830001 13357264
-0.07426330269146271 -0.03220690427247431 0.740914182037495 13749961
-0.07084831471063877 0.010967315586211782 0.7378310732981639 13815492
-0.0691119709438086 0.02173410665182268 0.7354360447086703 14534586
-0.07121070809597102 0.00575500643407422 0.7385345522029255 13420996
-0.07258476995843566 -0.048382209240181454 0.7380028875636803 13947601
-0.0693118241458351 -0.04198843116336841 0.7373709237992708 8683901
-0.06517937717857528 0.01967977838216608 0.7347910849951881 13026238
-0.06551047790928811 -0.042974007418839305 0.7356830737132798 10986402
-0.0643767736487838 -0.04239189158366149 0.7352870617540473 14473431
-0.0643767736487838 -0.04239189158366149 0.7352870617540473 14473431
-0.06434212465191752 -0.03946937682875058 0.7356650355204433 14078673
-0.06408542048916754 -0.03205965825888006 0.7429308253672772 10262679
-0.06408542048916754 -0.03205965825888006 0.7429308253672772 10262679
-0.06408542048916754 -0.03205965825888006 0.7429308253672772 10262679
-0.06288273316835385 -0.03187025111520199 0.7358509773102708 9868174
-0.06286453525812638 -0.03514325285620935 0.7355455780462948 9933714
-0.06286205155391249 -0.032762374467127084 0.7357867876863344 9999760
-0.06280631113556959 -0.02916208036398062 0.7360285095630367 12631480
-0.06280631113556959 -0.02916208036398062 0.7360285095630367 12631480
-0.06179198805606027 -0.035490678629462466 0.7351044348797362 13683915
-0.060898161616538986 -0.04444387192688528 0.7336169029249978 13683915
-0.060898161616538986 -0.04444387192688528 0.7336169029249978 13683915
-0.060783068466794106 -0.043569025828561384 0.7336786021527075 11381160
-0.060950522066188374 -0.029007292906054225 0.7353330154181119 13881547
-0.060577826201739016 -0.034159129605996985 0.7347131206676358 10262679
-0.061685629287301966 -0.025877604728197962 0.7460693026730527 9539210
-0.05694902915945469 -0.04190656046957246 0.7324045664469532 10197140
-0.05670293133975245 -0.04292799607518073 0.7321444614381937 10855069
-0.05603487197294204 -0.025527149406339936 0.729733203232652 13683656
-0.05603487197294204 -0.025527149406339936 0.729733203232652 13683656
-0.05579860350254456 -0.022049669095381634 0.733629645738171 11380901
-0.055654074416325486 -0.04180723512855537 0.7319132369384231 14210512
-0.05520114323387241 -0.012220836902113057 0.733549133565428 11050908
-0.05566807591915119 -0.04028963275434562 0.7321088990185619 13815754
-0.05453569848236899 -0.0439071280845898 0.7311722848877649 11118242
-0.054468112812099664 -0.03991039365427301 0.7316837976124919 13749961
-0.05442832873371062 -0.03880954834233236 0.7318003937177981 11512999
-0.05431824280874196 -0.034432981327064446 0.7322266468629361 10197139
-0.05366654801829152 -0.021609095361149043 0.7328738488132572 13814214
-0.05310471008935343 -0.02474137323457573 0.7259728092665267 10261392
-0.05329759212520455 -0.03726545523288771 0.7315315533316831 13881547
-0.05329759212520455 -0.03726545523288771 0.7315315533316831 13881547
-0.05171670512052156 -0.0014256339420923737 0.7319418231975839 9603462
-0.05217339998708092 -0.041949709346262035 0.730530171103029 10591898
-0.05217339998708092 -0.041949709346262035 0.730530171103029 10591898
-0.05220904311212432 -0.04043738660911088 0.7307330319077294 12170930
-0.052121856738610174 -0.033161509066437465 0.7315118665716092 10131347
-0.052009968120274114 -0.03635973079350989 0.7311587340311129 11644585
-0.052009968120274114 -0.03635973079350989 0.7311587340311129 11644585
-0.051082781250388266 -0.01823760830195502 0.7319790900907372 10788507
-0.04972000492423951 -0.007882506270746473 0.7314666035776851 14143178
-0.04765308960766131 0.01235026480815242 0.729452097251767 9932427
-0.04886364716064778 -0.040908694267311245 0.7293885821413987 11184035
-0.048477533219862826 -0.041533957528214295 0.7291582037356149 10065554
-0.04654900368085328 -0.042535933129637375 0.7282745883934305 11776426
-0.04651475256582134 -0.03979945607101155 0.7286380470251794 10526104
-0.04627171648064196 -0.03325103478137185 0.7292714285574848 10065553
-0.04627171648064196 -0.03325103478137185 0.7292714285574848 10065553
-0.04423685014324056 0.004440418641715163 0.7289317112420967 13551042
-0.04423685014324056 0.004440418641715163 0.7289317112420967 13551042
-0.044518250119563306 -0.010530939105337473 0.7296083959693123 11116700
-0.04347475964383902 -0.044956185709567234 0.7267625475759368 9606520
-0.041871225164920145 -0.024961100816527106 0.7283566512990172 3155729
-0.04096934301301513 -0.044323011920094336 0.7259308042722568 12170929
-0.04098358398886262 -0.04319081830352252 0.7260312443636047 7236454
-0.04098358398886262 -0.04319081830352252 0.7260312443636047 7236454
-0.04174631651205299 -0.03273425504483554 0.7297009139714691 3155741
-0.03977694467470549 -0.002984724752261864 0.727794119296279 3418139
-0.038959119565156616 0.004085553387242067 0.7271828232903021 3023900
-0.040126213988467975 -0.02076302827718931 0.7279359286809461 13618118
-0.040126213988467975 -0.02076302827718931 0.7279359286809461 13618118
-0.039793082199317306 -0.01886524755601523 0.7278382072404836 13880000
-0.039659647482001965 -0.04421999809797186 0.725459119286039 3288874
-0.0377554933562518 0.0036773167026140554 0.7267993916353693 15196630
-0.0377554933562518 0.0036773167026140554 0.7267993916353693 15196630
-0.03473261533501081 -0.033409639488299066 0.7250348911495006 14604758
-0.03473261533501081 -0.033409639488299066 0.7250348911495006 14604758
-0.03436624567254713 -0.0253850380880017 0.7255796832499415 15131102
-0.03436624567254713 -0.0253850380880017 0.7255796832499415 15131102
-0.03435984704948511 -0.026081591087279442 0.7254854844969296 15131102
-0.03435984704948511 -0.026081591087279442 0.7254854844969296 15131102
-0.03422788646325142 -0.022683624739963538 0.725698987110945 15328481
-0.032451309032721594 -0.01934683758748107 0.6856475549090962 15328481
-0.023032091907233532 -0.030082768514406822 0.7202755684271938 15196123
-0.022781041271320718 -0.026961324205335705 0.7200842543865182 15393245
-0.022061383226032256 -0.014233241764286099 0.7211183401088346 16182761
-0.022298228465204437 -0.02696048452501805 0.7236334441077559 14473172
-0.01963716715485573 0.009895638499012814 0.7239894353116767 10195338
-0.018944148941197652 -0.02024942631119503 0.7206875123579306 14011846
-0.018944148941197652 -0.02024942631119503 0.7206875123579306 14011846
-0.016680831392139536 -0.023132560460477142 0.7187913468283242 14077639
-0.015686609053694057 -0.04215273697490201 0.7168005742323609 12104624
-0.014026493135815329 2.6010281255127833e-05 0.7162335259044631 12694959
-0.01234642807446348 0.008708689268229422 0.7135637592142181 11445402
-0.012463961652771157 0.011295303244823087 0.717882451893494 10787472
-0.011520086718276958 -0.034454307575005366 0.7162603771882895 11116443
-0.0107244930094108 -0.04127623736854815 0.7151310802047065 14998488
-0.010086485815353326 -0.021399609996531854 0.6921579438911046 10063752
-0.01019679667378498 -0.02426614188301649 0.6884993004964902 13485246
-0.010315435618534896 -0.03021800428710684 0.7162644706402864 15393499
-0.009917155550405628 -0.01983409745893395 0.7169524527932584 14669008
-0.009621991954034117 -0.04066254684897263 0.7012011987950851 11379873
-0.009505185643018142 -0.013259307887307436 0.7171178418196611 15524571
-0.00941440121885199 -0.012549807105928264 0.717110314630737 14340297
-0.008287666305534985 -0.00042011062747006935 0.7168941188575588 14997714
-0.008181435656548572 0.00059364865636286 0.7168387938606929 14273991
-0.008311767943154252 -0.03531739529406759 0.6450186833748329 15458524
-0.006900717015904789 0.004988031753710397 0.7163093562959776 9932163
-0.006900717015904789 0.004988031753710397 0.7163093562959776 9932163
-0.007287938081499296 -0.0007760281664325924 0.7165402156278331 12761262
-0.005991100211540849 -0.020763008152658788 0.7306823990179827 15195606
-0.006029359354165847 -0.034438370975754015 0.7142954989750967 9537922
-0.0060226660560609045 -0.02881554728660243 0.7148405295338587 10721428
-0.00605234483539642 -0.01755683453827924 0.6922127388891759 14866387
-0.00043864669872789374 0.04434270051151613 0.6695910353817571 1711132
-0.004644121054033766 -0.007856578566760676 0.7155571869443057 11773857
0.010003128172476759 0.04247934247668646 0.6707902536108796 3289393
0.009737422634892514 0.007783197572878702 0.7106283728910429 5064093
0.010703863951221295 0.018204366789821253 0.7098528018686757 14274248
0.011266077038842384 0.018474536936048242 0.7097636285936954 2498067
0.00974820624311194 -0.026000143976720548 0.7096921280842559 5531533
0.010015175842182903 -0.015398397269866327 0.7103051842187356 11318983
0.012650619140844864 0.01770463003168246 0.709370149894455 14273471
0.011725371506135706 -0.029059405996000813 0.7098566137475953 15855337
0.011725371506135706 -0.029059405996000813 0.7098566137475953 15855337
0.01324341409034217 -0.02646086894176539 0.7671776779905741 15263209
0.01218971293271226 -0.02729285573531752 0.7101164660221667 6255759
0.013803676995528596 -0.02727309306638361 0.7105119760791784 15660533
0.015411718083472446 -0.05226300511158542 0.7044855034024735 5537182
0.015719447591082594 -0.01489822600031586 0.7115650704336832 15331055
0.01726256047279702 0.006142967148922233 0.7116589653801567 6905175
0.016781463719597628 -0.008142922350003568 0.7117273896338406 16577255
0.016630224457693327 -0.014782726928767469 0.7116589475548012 15331065
0.018769662289444 0.009286573747626694 0.7118703526216251 15984609
0.01762750756812142 -0.013534365470705188 0.7119240246538654 4811415
0.017887333588425064 -0.010445353516099647 0.7119254478011637 14538189
0.017990248858106784 -0.011617446056683996 0.7120792229110326 11315101
0.017794347215429187 -0.025346228620573452 0.7114915900386815 12037541
0.01835177047324267 -0.01701170819343095 0.7119743749437398 3961006
0.018580284613390678 -0.01436062768109687 0.7121425072964261 16184569
0.01881169083834772 -0.009438327142224985 0.7121849650357743 16314084
0.01881169083834772 -0.009438327142224985 0.7121849650357743 16314084
0.020118188257019592 0.004104092144336351 0.7123970937386653 15392985
0.018071561161212203 -0.032885984126870695 0.6649449306356124 7761766
0.020075926434087146 -0.011056226657893074 0.7124222535330279 16445922
0.02132677126347044 0.008530239919825981 0.7125084577386668 15721950
0.020972083080436087 -0.011075585583815344 0.7125672300054499 10261893
0.021071899803935073 -0.009922387818448937 0.7125710668003873 16314342
0.020672808528576173 -0.025974152658421817 0.7121205937384252 11511198
0.02121384403263823 -0.030852119215524703 0.7119636837984031 8880250
0.0227348273739409 0.0003470675431527422 0.7129795519267087 14866894
0.02235986854930413 -0.007996077748896414 0.7129217364581019 15327443
0.022827512936033054 -0.01500101372604882 0.7128480169532422 11840163
0.022827512936033054 -0.01500101372604882 0.7128480169532422 11840163
0.023265347367074262 -0.007128471990505957 0.7130807863055179 7698244
0.023752964439866926 -0.0067836601428289765 0.7131727503911097 13551032
0.024367832978926324 -0.0018151651484247019 0.7133189222612714 7827251
0.0247207707963925 -0.003282852278670015 0.7133472216305252 7367497
0.025117455580790704 -0.006703774407246902 0.7134488051467744 10919564
0.025907794777484804 -0.024885603893435446 0.7122280768494732 15788506
0.026420353428040996 -0.02102878905394706 0.7134749702575758 7762770
0.029131512283449602 0.025347871413495867 0.7127546450798284 2366742
0.027192688469068017 -0.006729340205275335 0.7138833189063153 15524568
0.027595211479396666 -0.005758800655605736 0.7138957203931611 8354642
0.028817992897893534 -0.03588171778773138 0.7588614535958662 13222838
0.028931951829231577 0.0007725288143487373 0.7141567403318596 4932396
0.028689962040530325 -0.0055652025949173645 0.7141495354064443 7104319
0.029159466993492415 -0.0017510675978224051 0.7142964730150483 6578489
0.03007169404956834 0.008205400854288718 0.7142397433002272 15129813
0.02999728856263314 -0.0031953631290542075 0.7144653976148465 6513725
0.02966869049655595 -0.012298340020646385 0.714315662661932 6523324
0.030623910005201916 0.005094283560376835 0.7144435115852589 15327192
0.031030763586052452 -0.014006749271711666 0.7146189517301306 3356222
0.031030763586052452 -0.014006749271711666 0.7146189517301306 3356222
0.031757050922966865 -0.010419478108913393 0.7147412729991135 6324397
0.03274572663234866 0.004139810556902547 0.7149714151093512 14998227
0.034470432148213125 0.007661298006626981 0.715024102627227 10195338
0.033682144992253756 -0.012200891467627335 0.7151405999268673 15066345
0.0338534108012367 -0.008335603626533657 0.715170353545796 4285855
0.035573528312211423 -0.008206870280360956 0.7155541992806812 13353662
0.03549418002236316 -0.01166407515230327 0.7155583902920657 15064013
0.037062675196804715 0.008594834445080132 0.7192610861698225 15656157
0.03664172486079276 -0.007334863931822599 0.7156763434021454 14142408
0.03733174257055964 0.0021583552383555873 0.7158986816452457 14932434
0.03721035207547123 -0.007533749292393401 0.7155209189188377 13946053
0.037331933625124374 -0.009214879935524169 0.7158089407197217 8354158
0.037724307340513095 -0.009134824886509445 0.7159380713063537 5196094
0.03807796352119558 -0.01650621702756161 0.715837619540609 6248531
0.03812129924818388 -0.024138469979872585 0.7153811719545305 8286095
0.03833033806966019 -0.015594507688697907 0.71591459079771 15394273
0.03878851652650051 -0.024643780986301284 0.7156375539158549 14867439
0.03947696973853593 -0.006200312054597948 0.7162337787547459 6116172
0.03902733573260414 -0.02029946838227015 0.7158547585833737 12432556
0.0391931519989562 -0.02303494432063029 0.7156338148131018 15393762
0.040635039392704915 0.007812514236855828 0.7160494770215812 13813953
0.039620640588494876 -0.019785713639331057 0.715951559433349 12498093
0.039620640588494876 -0.019785713639331057 0.715951559433349 12498093
0.03958671075894048 -0.025835358714204025 0.7156798767183354 6971520
0.03986550264363789 -0.0411324896250664 0.7141454048693636 10128043
0.04019026518595158 -0.018098474106053013 0.7160407587970301 7366499
0.04029203647223047 -0.020153720786750054 0.7160900891975079 12300205
0.040636826923408885 -0.009399522764738849 0.7164669526182236 14078669
0.040636826923408885 -0.009399522764738849 0.7164669526182236 14078669
0.040729193850205646 -0.02461653413295803 0.71591720310728 6968963
0.041220092466075275 -0.009005525210934022 0.7165348457841085 7565162
0.041887694899471174 -0.0034869629561504797 0.7166893141702396 12300716
0.042917997821653384 -0.04031344950396235 0.7437837589521287 8746135
0.04211609065489497 -0.00793273441585727 0.7167287564714345 16578544
0.04177961024869943 -0.023321736519156335 0.7162133342201994 14076871
0.04222472250242292 -0.009759444955703812 0.7167629363638006 9669254
0.04259191535702591 -0.005631525879602758 0.7167498689206392 7300446
0.04231087015410588 -0.012865323503977386 0.7166749415997229 15590624
0.04197219062962777 -0.026276520630400618 0.7149843470053717 5720164
0.042587329080558324 -0.00844668656499421 0.7168085159107367 7761257
0.042376301792883445 -0.020895444480582618 0.7163390750153174 10194827
0.043723538733728716 0.008348872779956643 0.7166089443228183 14537676
0.04271594872590318 -0.015794403371843773 0.7165865937503004 12169388
0.04278692195349772 -0.018512321381267603 0.7165567074950951 4274228
0.04330501533956376 -0.008460452848524811 0.716871753169027 14998741
0.04330501533956376 -0.008460452848524811 0.716871753169027 14998741
0.04328142388438353 -0.013369631485047842 0.7168481451846673 15525859
0.043110604128511906 -0.020020905151169086 0.7167363021062603 9800840
0.043387114154753936 -0.014464396222147924 0.7168391708745651 16512754
0.043692246104077875 -0.013973742081229045 0.7169068308461927 9142910
0.04546827121064681 0.017613368659238293 0.7165157507915256 14734542
0.04370807721746985 -0.0224277292642797 0.7164901560722046 11905702
0.04369370124636239 -0.02570569530630337 0.7161825082862056 15328230
0.04369370124636239 -0.02570569530630337 0.7161825082862056 15328230
0.04373251963706597 -0.041174343913717396 0.714865440849374 9405863
0.04483894051867081 -0.007999307165734304 0.7171647259091507 15130069
0.04438484903422893 -0.025999687887900254 0.7163132117608754 15129559
0.04519703576420093 -0.010714726199813724 0.7172172128348155 15787489
0.045247313189840384 -0.012126207907943795 0.7172717873035408 8944500
0.045185872031367064 -0.02333189130119735 0.7167710430712474 13485751
0.04525544414262649 -0.039626096078513084 0.7152564248957011 14934249
0.04660465955160481 -0.00041509407143849197 0.7175324650737926 11708577
0.04612194949071471 -0.040136932030284435 0.7153665786365314 12959425
0.04468582770844208 -0.02860034300207418 0.6983871162717673 12105655
0.04700798546984602 -0.018654982102145844 0.7172233148856172 12765909
0.04746498212571308 -0.025257014821560064 0.7168690921147918 11251879
0.048261664667091426 -0.02031685234858505 0.7254142477511559 12899299
0.048261664667091426 -0.02031685234858505 0.7254142477511559 12899299
0.04809224741994808 -0.030394096885959603 0.7166676110077095 15260149
0.04809224741994808 -0.030394096885959603 0.7166676110077095 15260149
0.04842317838074828 -0.03099514975800499 0.7166855426459897 6772081
0.048486097425285556 -0.029909667138216255 0.7167567474038312 6510453
0.048486097425285556 -0.029909667138216255 0.7167567474038312 6510453
0.04971012047718278 0.00013129187647288062 0.7179246059507464 14603469
0.04886727981726147 -0.030528699866016588 0.7167959207720079 14934494
0.04928635212868883 -0.01408034688894956 0.7177142447319182 6716325
0.04899399096763812 -0.028846275433027778 0.7168171913196254 15526873
0.051313102354648484 0.015414255630698351 0.7196664753245136 14339784
0.049448593618411876 -0.021545104347391875 0.7173585680688404 13751780
0.049340275724005955 -0.029551786193830074 0.7168818696487976 5917302
0.049340275724005955 -0.029551786193830074 0.7168818696487976 5917302
0.047725009532266965 -0.05310549223821152 0.6867202642049907 5599369
0.04952057523273016 -0.03090760276747187 0.7168018581531377 7559826
0.05117442452483685 0.012111993778627542 0.7178043623017771 15655646
0.05150606950016775 0.012193095699876415 0.7178280779293073 15589854
0.05006314455302125 -0.022028197440568525 0.7175373253760019 15001064
0.050650147340154016 -0.02135328610748856 0.7177033190013336 14471630
0.05114184209512602 -0.05942724178023917 0.7128366888032168 5339802
0.052692592211229884 0.01059243579333252 0.7181330128290281 12826547
0.051238466961892125 -0.030407657246144682 0.7172165355691681 15130327
0.05185483132573659 -0.016308904016647998 0.7180519493079802 3161680
0.05281661980980423 0.002168331857309659 0.7183537141381076 14800594
0.05204820105575281 -0.01764104386933158 0.718019213730858 13295351
0.05216421949705199 -0.018623689210181156 0.7180209662524951 13098231
0.052320491852789176 -0.027988947029800045 0.7174207020738921 12695477
0.05266343514187713 -0.016735689331258387 0.7181529118628941 3223858
0.05415479354550301 0.00949092690337609 0.7183927517043716 11708577
0.052966094939413635 -0.028355451799015222 0.7175305031780661 12168619
0.052979622507289915 -0.028341760672215287 0.7175464056010045 12168619
0.053120270026941994 -0.02665154191613908 0.7176874451039346 13231871
0.05135230774437571 -0.053271841374198416 0.6838279885662956 6518927
0.05354212083878357 -0.02865442311053396 0.7175304208447429 12498610
0.05366046474163887 -0.02728933898762697 0.7177009914545202 4803158
0.05520539157455799 0.004272225877742883 0.7186507813453227 14603215
0.054235846066617535 -0.027257307930389645 0.7178307317063531 16644603
0.0546157604637608 -0.026790215096903887 0.7178973024089401 6906471
0.05520823549741126 -0.02299758221827969 0.7182188706346696 12960715
0.05520823549741126 -0.02299758221827969 0.7182188706346696 12960715
0.056664929481076716 0.014494350987364076 0.7162043496348482 14931923
0.055364194189515374 -0.026235731179779967 0.7180535215347134 13485756
0.055725427739153066 -0.02889004086877144 0.7179252318670918 14011079
0.05599099439513671 -0.024168825968978035 0.7182526578134641 14211022
0.05954338938382867 0.0368366650966315 0.7171133469528809 2368290
0.056458194343011386 -0.02467763783831633 0.7182299472838363 14669262
0.05787762945376667 0.0065950708452316275 0.7188919624083495 14866642
0.057099200185254356 -0.025820346067336068 0.7182442856593328 14734801
0.057476299618851284 -0.023023392592464716 0.7185534735371772 12695218
0.05779603945963789 -0.020400607654681546 0.7186529589440501 11777472
0.05809308811218322 -0.031229509477098436 0.7180091242587028 12694967
0.05809308811218322 -0.031229509477098436 0.7180091242587028 12694967
0.05839859269616912 -0.016597591186046947 0.7190158552424678 15457751
0.058948828260039644 -0.007774454899531138 0.7192829440154724 10919061
0.058948828260039644 -0.007774454899531138 0.7192829440154724 10919061
0.06041793115846082 -0.02018614555731513 0.7356983140903903 9407128
0.05886526460941458 -0.028677720414173314 0.7182563984138337 9801871
0.05886333578653815 -0.03127466024999996 0.7181371424604601 6247253
0.05887612964762693 -0.030692396784146814 0.7181550368101673 12104626
0.05930773422658992 -0.022245169288740457 0.7188064499813844 7892074
0.05958894011117595 -0.014192493132845931 0.7192115585821747 15787746
0.06006412830922689 -0.017531092811310586 0.7191764965247893 14473432
0.060044395328618196 -0.02777173013865262 0.718525120627022 3288364
0.060492097211833525 -0.01588046553987159 0.7192602659454435 14934768
0.060492097211833525 -0.01588046553987159 0.7192602659454435 14934768
0.06091422978687561 -0.016378278095343313 0.7192691922315976 6453417
0.06053928468618474 -0.02642575262016569 0.7181600892503632 13090747
0.06111828441102682 -0.01834771549924282 0.7192172611452247 15394783
0.061146293128675956 -0.01834371884655297 0.7191984872084056 15394783
0.061376827823015526 -0.015615796865016598 0.7193737439571147 14867171
0.0636140162489611 0.011853412453216227 0.7195675517390755 14998227
0.06223005204056132 -0.03463229946285781 0.7184427544724583 11248286
0.06223005204056132 -0.03463229946285781 0.7184427544724583 11248286
0.06257364321260239 -0.018111433961131084 0.7193654234585168 14147047
0.06268003233464414 -0.03525050998373075 0.7183598447552051 13616834
0.06426956433410135 0.0036374652763960535 0.7207030460485302 14800848
0.06602930517064459 -0.005035778958118211 0.7202136778876048 9275527
0.06602930517064459 -0.005035778958118211 0.7202136778876048 9275527
0.065482323362482 -0.02909838368281792 0.7191524057460092 10726074
0.06637936336654217 -0.006833597147976357 0.7202475866945093 15588820
0.0668943408113348 -0.04151941294703848 0.7181889122264644 4406895
0.06782609071617675 -0.009014812414797123 0.7204038362902159 7960704
0.06769470673829932 -0.013313453811435807 0.7202930909832028 5009055
0.06803156291514692 -0.005376878800141787 0.7204507936485941 12638203
0.0637444271129462 -0.03783810507036239 0.6749562172855048 15000790
0.07003453943043512 0.01893015623630013 0.7201053337251371 15719664
0.06881584248226005 -0.0034071074395605875 0.720574578389187 4475748
0.06881584248226005 -0.0034071074395605875 0.720574578389187 4475748
0.07012214869083583 0.018447510984713488 0.7205706701997767 14733786
0.06824545141128113 -0.026806961109652874 0.7196000770053081 11774116
0.06824545141128113 -0.026806961109652874 0.7196000770053081 11774116
0.07062106822025248 0.019773646361507025 0.7200975660089554 14273487
0.06752892318137864 -0.01291345502176667 0.7260143864925307 8945531
0.06930942756085702 -0.008481001561491439 0.7205570139758409 1848154
0.07154674059314967 0.024465170791070127 0.7200173531743399 14998735
0.06920366224479066 -0.028019917991870022 0.7197234601335905 7563878
0.06936571653287651 -0.02562151658300291 0.7199248907081361 10918807
0.06942457292215856 -0.024481730525089045 0.7198999165926574 11247772
0.06941495972443687 -0.02948999038589113 0.7196355898247323 6708569
0.06941495972443687 -0.02948999038589113 0.7196355898247323 6708569
0.07119682472888436 0.013521793977252526 0.7205810865787523 4860263
0.07008280935077503 -0.008747912418764487 0.7206289106991847 3948622
0.069533869942756 -0.042160160273826325 0.7184128412352342 16708607
0.069533869942756 -0.042160160273826325 0.7184128412352342 16708607
0.0696339499715062 -0.028666421114946654 0.7195995587555696 15393501
0.06970416216652904 -0.026704466409473535 0.7198253786819341 10064782
0.07045439918199163 -0.003984932233327754 0.7207744362943149 4606053
0.06992242255771558 -0.02611364439988817 0.7198862522621438 15063766
0.06992242255771558 -0.02611364439988817 0.7198862522621438 15063766
0.07011282511979357 -0.033159519454960956 0.7194411549007569 13293812
0.07024549651432264 -0.027320059751037913 0.719854690646663 15065307
0.07029014069680671 -0.02557635052942302 0.7200602583879473 10589842
0.07263162883155437 0.014515913258241763 0.7269476718780489 5649270
0.07037023812315976 -0.029395833811641958 0.7197540276654186 7695464
0.07318227163982845 0.025301145520973355 0.720186352206736 14997720
0.06868428606162608 0.0033045740744732 0.6838313531355237 4795760
0.06868428606162608 0.0033045740744732 0.6838313531355237 4795760
0.07097035286551125 -0.02653990666875918 0.7200573755327213 11314849
0.07294259448980818 0.014747685084042535 0.7207525592553055 5783154
0.0715315284067761 -0.014884918656057065 0.7207329003069464 14147305
0.07332330166109309 0.019411659776193888 0.7205147945795082 4536887
0.07280242025133297 0.010873297441716777 0.7211923711208578 14931921
0.07271468837725326 0.004969981121635257 0.7209687659899336 6240141
0.07343104524236245 0.014396922713059236 0.720816458113141 15982590
0.07140347595300353 -0.015560582122894639 0.7134671341780804 13489639
0.06960007355461974 0.0016048307280334987 0.6837200852541231 15589625
0.07434149867231366 0.021167793910625784 0.7205783006858187 11511712
0.07215774398649083 -0.03277944485631768 0.7196936101822375 6846373
0.07215774398649083 -0.03277944485631768 0.7196936101822375 6846373
0.07470448171501248 0.025161321385883544 0.7203780829859823 11774370
0.07440537823830466 0.019842362890893552 0.7206390884739118 5524296
0.07226644855425836 -0.042102456291087435 0.7187753180537326 10458817
0.07234906983043556 -0.029388646782858147 0.7199530265944524 6775389
0.07407173258287321 0.014180871665918372 0.7208269481175255 5255794
0.07475616262278711 0.023729659530444452 0.720198991510957 14866641
0.07507881909674988 0.02585194062663827 0.7205187965415896 15261399
0.07257436694455509 -0.0330869018382104 0.7197280308139321 13097207
0.07281506549358688 -0.024335067634904638 0.720404797369651 10589842
0.07297071157427559 -0.027831558809319566 0.7201577353074279 7893613
0.07304378946840875 -0.03297730664350399 0.7197403200474201 6254236
0.07529185760482437 0.02133116469267117 0.7206814025611297 9866887
0.07529185760482437 0.02133116469267117 0.7206814025611297 9866887
0.07523521716040203 0.018599374114896577 0.7208343372910992 5589574
0.07523521716040203 0.018599374114896577 0.7208343372910992 5589574
0.07560296090660498 0.02252991349009229 0.7207350056002704 9537408
0.07470620323242334 0.007090838082300332 0.7211601972636325 15983598
0.06871309054804424 -0.030868858297324542 0.673724650936187 7898554
0.07459716528874659 0.0030084610680477745 0.7212613678679469 14077132
0.07685447842191036 0.025686725071635386 0.7205527195329771 8089962
0.0767366667208578 0.022288922049204483 0.720858526212079 15985122
0.0767366667208578 0.022288922049204483 0.720858526212079 15985122
0.07677044168712815 0.02057589178140589 0.7209181224517216 9603201
0.07554036442995472 0.00020204621784328632 0.7214006497352644 3612998
0.07586735541749452 0.0024538430071968905 0.7214088802216206 15261161
0.07483335302216375 -0.033353126713544116 0.7199461147465311 6845859
0.0759464135340454 0.0031515152086378576 0.7214057450677515 15590376
0.07617038267211602 0.0005801004271615899 0.7214738248203615 15590121
0.07643644096693454 0.0053220549927270105 0.7215266402308359 8013736
0.07730232789408426 0.019091301114861577 0.7209730002248508 6445137
0.0755071462961725 -0.028519952440068757 0.7203457286793509 15195866
0.07670915481924442 0.004797809485525526 0.7215555772016131 8012728
0.07827303870898478 0.027462830844398836 0.7207084388128142 10524303
0.0779324217959201 0.022474026917617126 0.7210131515095054 15129813
0.07685542831931794 0.003459113557131816 0.7215914061376569 3676746
0.07594358284953014 -0.025798128424695678 0.7206886135379718 14932180
0.07114253949890695 -0.039397606374795065 0.6729762725553732 9537461
0.07812400023149337 0.015620533711017064 0.7214485623759921 10123964
0.07812400023149337 0.015620533711017064 0.7214485623759921 10123964
0.07634938098700318 -0.027577646779613756 0.7206106589640697 5919053
0.07750531063916724 0.0052853353277913405 0.7215805973540531 8409256
0.07546472522156063 -0.019124349117580024 0.7107570487696763 14409187
0.0787798671369958 0.020280442017003113 0.7213563153265682 14735055
0.0787798671369958 0.020280442017003113 0.7213563153265682 14735055
0.07172647811703321 -0.04022334530962784 0.6727603188937765 15197147
0.07852932214157085 0.012781437478837712 0.7216299862541742 14866897
0.07852932214157085 0.012781437478837712 0.7216299862541742 14866897
0.07792632443539595 -0.0003625102749996114 0.7155166278838785 5320059
0.07933722868282597 0.021153234631896983 0.7212765348494555 4471602
0.07933722868282597 0.021153234631896983 0.7212765348494555 4471602
0.07829432376105246 0.003730874130801847 0.7218311664218521 7686058
0.07840765487577574 0.005075559791325416 0.721713362526995 15854068
0.07993362088861848 0.023765888258446374 0.7211899880491879 10919061
0.07993362088861848 0.023765888258446374 0.7211899880491879 10919061
0.07889532353758621 0.0022150508786046752 0.7218846855758075 14668762
0.07909569122990123 0.005592056863214691 0.7218121173002588 16378875
0.07909569122990123 0.005592056863214691 0.7218121173002588 16378875
0.0791976497425741 0.004884550336666858 0.7218333452151813 5584745
0.07962875500145966 0.009965640509343947 0.721789214080827 15721439
0.07852438867024304 -0.01488105806251329 0.7215505578600153 15721441
0.07872789356862858 -0.00973150431142371 0.7217457080407995 14998744
0.0792036176891429 -0.0011606066563993197 0.7219168627902953 8875920
0.07846766427121252 -0.028554338874355673 0.7210381904787572 15195352
0.07886735118016328 -0.013644377009708454 0.7215915679067002 14866387
0.07860158867710126 -0.028336839252025275 0.7209615709547854 15261145
0.0791602634465328 -0.0091636543130244 0.7218001265808451 11642784
0.0789966868365025 -0.015314629567567038 0.7216321413299082 11905447
0.0797559350867741 0.003024264557224543 0.7219199954531688 16377597
0.0797559350867741 0.003024264557224543 0.7219199954531688 16377597
0.07899927912098802 -0.019018052816128773 0.7214524315364608 4614582
0.08129512579295586 0.02349140495220945 0.721362213398045 14998227
0.08129512579295586 0.02349140495220945 0.721362213398045 14998227
0.07936451526816801 -0.016759048855454227 0.7215689964621108 15131612
0.08094119176279399 0.015978630321306298 0.7217147793955333 6241922
0.07929505596083775 -0.020397002380339188 0.7214309514387456 5468081
0.08034945070791465 0.004912088591052333 0.7220150081364693 15590382
0.07941900525350636 -0.0182931036126982 0.7214846197555934 14671586
0.08032166393699931 0.004281621413008756 0.7219433920127606 7559311
0.08131532952250775 0.019707476156303656 0.7216020058701004 14800594
0.08072120527740938 0.009633139995069106 0.7219325633843955 14538449
0.08054331284491087 0.005687405271106133 0.7220021766012796 7824263
0.08054331284491087 0.005687405271106133 0.7220021766012796 7824263
0.0807795365112027 0.008382200379550831 0.7220004284134434 16052200
0.07974923421522856 -0.01743212679382387 0.7217211106478084 8026524
0.07993010679932805 -0.01923968243410691 0.7214999811346872 15065569
0.08214480106610464 0.023230919870463152 0.7215074257215012 10326924
0.08214480106610464 0.023230919870463152 0.7215074257215012 10326924
0.08177548974395532 0.016883532695988357 0.7218144911438547 6438282
0.08103778169484833 0.003601068860345423 0.7217417067990788 15783419
0.08028957611249161 -0.021311671567572105 0.7215463971597217 14999254
0.08186554615504264 0.009089777068241043 0.7220928494928501 15590110
0.08059741787256353 -0.02337953052062027 0.7213529133531539 9681357
0.08063107725641751 -0.04185504217666159 0.719718536834312 7167875
0.07801512705594715 -0.04260514851581806 0.6942287545284479 8022914
0.08249904122711957 0.008684577016749113 0.7221917283984246 9537154
0.08233173197449982 0.004525143505522398 0.7223737098087082 8014514
0.08254744777318913 0.0033954571051933954 0.7222653181139869 6111852
0.0822715963273939 -0.02174724463805558 0.7220060286872642 7176603
0.08228453431065982 -0.019072008434590587 0.7217139920248471 15130072
0.08370424105283741 0.012478250848051093 0.7222390053290724 11248029
0.08235666486520811 -0.023367369242521027 0.7215837317506301 15132898
0.08539556124214322 0.03223647964110351 0.7212814798818462 14997973
0.08252921479506865 -0.02185798154044893 0.721652089969106 5800101
0.08374297075041802 0.006269741148441811 0.7224505578862086 11708837
0.0827372126742393 -0.02226467821322027 0.721704776010983 6516632
0.08289308806784043 -0.021602810512627614 0.7216643367480872 8630483
0.08289308806784043 -0.021602810512627614 0.7216643367480872 8630483
0.08757181723577902 0.032817296188605724 0.7291776835288969 5326917
0.0856260848474353 -0.024852251151343825 0.7218093918642192 15328740
0.08619663484333898 -0.026259449641844575 0.7217967480610182 12504793
0.08651486218234662 -0.025280319198999365 0.7218488874428534 4604483
0.08657158362381727 -0.024306131392305037 0.7219212522399457 6511960
0.08686243620105699 -0.024612612315077127 0.7218923406993698 7628643
0.08686243620105699 -0.024612612315077127 0.7218923406993698 7628643
0.08820809155545284 -0.017727065709729917 0.7225414898874958 6976668
0.08802333820184988 -0.0379003546219599 0.721027731757286 15392475
0.08839600375250006 -0.024817890565651077 0.7220643420803345 10077166
0.08839600375250006 -0.024817890565651077 0.7220643420803345 10077166
0.08864525331868885 -0.02689094164936837 0.7219277006278161 4615332
0.0887758043680027 -0.026088756984727495 0.7220157878074169 13494013
0.08908177424004787 -0.02278641109118388 0.722272457680306 2900576
0.08916334183032318 -0.01788625728175902 0.7219535430084599 6847393
0.0892195778418464 -0.02780829551318814 0.7219136123346612 15004926
0.08927058879087561 -0.025144885248626597 0.7221190610809026 1322575
